 2842.243554 1886.385576 0.06251
 1493.6401 2599.662387 290.73959
 1493.639858 2599.662475 263.952155
 1493.640098 2599.662404 237.108604
 1493.639897 2599.662444 210.201194
 1493.639895 2599.662453 183.222
 1493.639883 2599.662448 156.162985
 1493.640019 2599.662407 129.016194
 1493.640047 2599.662436 101.77344
 1493.639876 2599.66244 74.426237
 1493.639911 2599.662443 46.966446
 1493.640253 2599.662308 19.385359
 1528.859433 2580.682826 0.062515
 1637.2522 2522.270468 0.062556
 1734.610435 2469.804582 0.062532
 1822.561079 2422.408327 0.062539
 1902.426703 2379.36913 0.062523
 1975.292636 2340.102018 0.062529
 2042.058558 2304.122135 0.062514
 2103.476919 2271.024075 0.062535
 2160.180346 2240.466875 0.062503
 2212.706527 2212.160717 0.062515
 2261.513839 2185.858688 0.06254
 2306.996175 2161.348493 0.062549
 2349.493639 2138.446824 0.062537
 2389.301894 2116.994322 0.062522
 2426.678546 2096.852221 0.062511
 2461.849476 2077.898764 0.06254
 2495.01349 2060.026829 0.062544
 2526.346301 2043.141732 0.062519
 2556.003434 2027.159601 0.062537
 2584.124035 2012.005563 0.062537
 2610.831584 1997.612979 0.06255
 2636.236917 1983.922189 0.062521
 2660.440014 1970.879225 0.062541
 2683.53045 1958.435915 0.062516
 2705.589294 1946.54848 0.062492
 2726.690297 1935.177244 0.062487
 2746.89988 1924.286381 0.062496
 2766.278976 1913.843088 0.062523
 2784.882463 1903.817757 0.062539
 2802.761388 1894.182886 0.062485
 2819.962123 1884.913487 0.062516
 2836.526806 1875.986843 0.06251
 1412.205985 2599.662482 285.282914
 1412.206092 2599.662448 257.631925
 1412.206323 2599.662322 229.922985
 1412.206011 2599.662437 202.148124
 1412.206007 2599.662425 174.29917
 1412.206163 2599.662419 146.367836
 1412.206153 2599.662444 118.345857
 1412.206009 2599.662469 90.224824
 1412.206087 2599.662378 61.996039
 1412.205897 2599.662478 33.650953
 1412.206078 2599.662432 5.180676
 1511.693989 2548.180892 0.062515
 1621.050021 2491.592895 0.062503
 1719.273731 2440.76556 0.062504
 1808.006329 2394.849483 0.062539
 1888.58181 2353.154471 0.062523
 1962.095487 2315.113722 0.062529
 2029.454931 2280.257536 0.062514
 2091.419187 2248.193175 0.062535
 2148.626617 2218.590294 0.062503
 2201.61969 2191.168224 0.062515
 2250.860862 2165.687642 0.06254
 2296.747448 2141.942898 0.062549
 2339.622665 2119.756504 0.062537
 2379.784732 2098.973965 0.062522
 2417.493625 2079.460942 0.062511
 2452.977167 2061.099451 0.06254
 2486.436005 2043.785654 0.062544
 2518.04728 2027.42791 0.062519
 2547.968113 2011.944939 0.062537
 2576.338621 1997.264185 0.062537
 2603.283588 1983.32107 0.06255
 2628.914713 1970.057875 0.062521
 2653.332995 1957.422262 0.062541
 2676.628626 1945.367578 0.062516
 2698.883633 1933.851366 0.062521
 2720.172106 1922.835305 0.062487
 2740.561427 1912.284544 0.062526
 2760.112663 1902.167442 0.062523
 2778.881548 1892.4552 0.062539
 2796.919377 1883.121262 0.062485
 2814.272996 1874.141378 0.062516
 2830.984923 1865.493505 0.06251
 1325.324235 2599.662455 279.410517
 1325.324266 2599.662446 250.830137
 1325.324487 2599.662322 222.189876
 1325.324341 2599.662434 193.481486
 1325.324263 2599.662424 164.696496
 1325.324313 2599.662405 135.82635
 1325.324322 2599.662393 106.862551
 1325.324401 2599.662406 77.796356
 1325.324369 2599.662392 48.618744
 1325.324264 2599.662406 19.320984
 1371.499027 2576.741079 0.062537
 1495.076163 2515.396867 0.062515
 1605.364871 2460.649024 0.062503
 1704.426586 2411.474376 0.062532
 1793.915834 2367.051544 0.062539
 1875.178556 2326.712345 0.062523
 1949.319406 2289.908537 0.062561
 2017.253177 2256.185859 0.062514
 2079.746014 2225.164148 0.062535
 2137.441527 2196.523863 0.062539
 2190.886506 2169.993532 0.062515
 2240.547672 2145.341521 0.06254
 2286.825633 2122.368925 0.062549
 2330.066459 2100.903958 0.062537
 2370.571159 2080.79728 0.062522
 2408.601691 2061.918737 0.062511
 2444.387833 2044.154348 0.06254
 2478.132095 2027.403547 0.062544
 2510.012991 2011.577726 0.062519
 2540.188989 1996.598221 0.062537
 2568.801378 1982.394899 0.062486
 2595.976304 1968.905174 0.06255
 2621.826002 1956.07324 0.062521
 2646.452564 1943.848515 0.062541
 2669.946954 1932.185815 0.062516
 2692.391783 1921.044103 0.062521
 2713.861888 1910.386233 0.062516
 2734.425032 1900.1786 0.062526
 2754.143063 1890.390502 0.062523
 2773.072039 1880.994088 0.062539
 2791.263699 1871.96365 0.062485
 2808.765346 1863.275762 0.062516
 2825.619815 1854.909111 0.06251
 700.299972 2852.764146 191.779199
 700.300071 2852.764074 155.053452
 700.300108 2852.764037 118.240394
 700.300263 2852.763954 81.329131
 1007.197222 2706.775885 90.536257
 1007.197354 2706.775866 57.525936
 1007.197036 2706.775954 24.398882
 1053.849393 2684.58385 0.062533
 1213.81788 2608.488301 0.062511
 1354.42223 2541.604108 0.062537
 1479.009829 2482.338967 0.062515
 1590.200336 2429.446617 0.062503
 1690.071817 2381.938682 0.062504
 1780.292904 2339.021307 0.062539
 1862.22021 2300.049291 0.062523
 1936.967203 2264.492821 0.062561
 2005.45649 2231.913096 0.062514
 2068.460276 2201.942745 0.062535
 2126.627542 2174.273126 0.062539
 2180.50946 2148.64197 0.062515
 2230.576564 2124.825513 0.062501
 2277.233048 2102.631412 0.062549
 2320.827502 2081.893988 0.062537
 2361.663347 2062.468722 0.062522
 2400.004848 2044.230039 0.062511
 2436.083662 2027.067683 0.06254
 2470.103745 2010.884617 0.062544
 2502.245364 1995.595141 0.062519
 2532.668074 1981.123338 0.062537
 2561.514563 1967.401347 0.062537
 2588.911516 1954.368827 0.06255
 2614.97265 1941.971797 0.062521
 2639.800543 1930.161384 0.062541
 2663.486925 1918.893999 0.062488
 2686.115356 1908.129881 0.062521
 2707.760973 1897.833246 0.062487
 2728.492247 1887.971571 0.062496
 2748.371488 1878.515174 0.062492
 2767.455268 1869.437193 0.062539
 2785.795712 1860.712819 0.062485
 2803.440455 1852.319381 0.062516
 2820.432743 1844.236304 0.06251
 700.300171 2796.504936 193.862939
 700.300257 2796.504977 157.422502
 700.300077 2796.505082 120.895401
 700.300455 2796.504883 84.270905
 700.300074 2796.505021 47.537958
 700.300432 2796.504904 10.685914
 849.885996 2728.397858 0.062573
 1035.010744 2644.109621 0.062575
 1196.231751 2570.704965 0.062555
 1337.936707 2506.18595 0.062537
 1463.499662 2449.016543 0.062515
 1575.561055 2397.994424 0.062556
 1676.214291 2352.166432 0.062532
 1767.141875 2310.766717 0.062568
 1849.710476 2273.172778 0.062554
 1925.042631 2238.87371 0.062561
 1994.068166 2207.446037 0.062514
 2057.565338 2178.535437 0.06257
 2116.187899 2151.844297 0.062539
 2170.491856 2127.119438 0.062553
 2220.950933 2104.145165 0.06254
 2267.972589 2082.735987 0.062549
 2311.908356 2062.731837 0.062537
 2353.06393 2043.993485 0.062522
 2391.705753 2026.399685 0.062556
 2428.066916 2009.844272 0.06254
 2462.353363 1994.233434 0.062544
 2494.746671 1979.484634 0.062519
 2525.407581 1965.524581 0.062537
 2554.479737 1952.287871 0.062486
 2582.091389 1939.716169 0.06255
 2608.35662 1927.757445 0.062575
 2633.378812 1916.36472 0.062541
 2657.250703 1905.495738 0.062516
 2680.056206 1895.112267 0.062521
 2701.871368 1885.179711 0.062516
 2722.764992 1875.666748 0.062526
 2742.799877 1866.544762 0.062523
 2762.033097 1857.787797 0.06257
 2780.517137 1849.371936 0.062517
 2798.299913 1841.275313 0.062516
 2815.425266 1833.478078 0.06251
 700.300223 2741.09795 195.840954
 700.300151 2741.098026 159.67134
 700.300137 2741.098055 123.415746
 700.300101 2741.097993 87.06341
 700.300181 2741.098087 50.6035
 700.300245 2741.097988 14.025322
 1974.18387 2186.668434 200.125024
 2000.200138 2175.345442 185.18377
 2000.200047 2175.345468 165.611895
 2000.20009 2175.345471 145.953539
 2000.200108 2175.345468 126.202655
 2000.20012 2175.345433 106.352867
 2000.200131 2175.345438 86.397673
 2000.200072 2175.345459 66.330613
 2000.200184 2175.345424 46.144956
 2000.20021 2175.345446 25.833937
 2000.200116 2175.345438 5.390525
 2047.063852 2154.949078 0.062535
 2106.125456 2129.243784 0.062539
 2160.835951 2105.432295 0.062515
 2211.672951 2083.306579 0.06254
 2259.046737 2062.688193 0.062549
 2303.3115 2043.422985 0.062537
 2344.775233 2025.376761 0.062522
 2383.706275 2008.432926 0.062511
 2420.339783 1992.488999 0.06254
 2454.883075 1977.454816 0.062544
 2487.518843 1963.250788 0.062519
 2518.409388 1949.806412 0.062537
 2547.699227 1937.058609 0.062486
 2575.517643 1924.951308 0.06255
 2601.979415 1913.434393 0.062521
 2627.18907 1902.462438 0.062541
 2651.239742 1891.994925 0.062516
 2674.216016 1881.994999 0.062521
 2696.194468 1872.429376 0.062487
 2717.244568 1863.267781 0.062526
 2737.4295 1854.482759 0.062523
 2756.80666 1846.049272 0.062539
 2775.429185 1837.944233 0.062517
 2793.345156 1830.146711 0.062516
 2810.59879 1822.637459 0.062543
 700.300108 2686.49323 197.716681
 700.300145 2686.493284 161.803917
 700.300161 2686.493269 125.805768
 700.300105 2686.493237 89.71157
 700.300096 2686.493184 53.510567
 700.300122 2686.493236 17.192101
 1963.557766 2161.68388 200.125004
 2000.200085 2146.461094 187.13519
 2000.200103 2146.461114 167.702305
 2000.200081 2146.461112 148.183526
 2000.200065 2146.461126 128.572888
 2000.200046 2146.461144 108.864033
 2000.200038 2146.461113 89.05055
 2000.200135 2146.461123 69.125999
 2000.200064 2146.461119 49.083657
 2000.200046 2146.461188 28.916829
 2000.199952 2146.461173 8.61859
 2036.959014 2131.189945 0.062535
 2096.442963 2106.477852 0.062503
 2151.544815 2083.586302 0.062515
 2202.745463 2062.315444 0.06254
 2250.457975 2042.493656 0.062549
 2295.039256 2023.972756 0.062537
 2336.799583 2006.62382 0.062522
 2376.009055 1990.334581 0.062511
 2412.904596 1975.006679 0.06254
 2447.694866 1960.553334 0.062544
 2480.564084 1946.898116 0.062519
 2511.675336 1933.973198 0.062487
 2541.174827 1921.717886 0.062486
 2569.192124 1910.078353 0.06255
 2595.8432 1899.006388 0.062521
 2621.233138 1888.458361 0.062541
 2645.455809 1878.395272 0.062516
 2668.596409 1868.781701 0.062521
 2690.732112 1859.585642 0.062516
 2711.932688 1850.778034 0.062526
 2732.261981 1842.332407 0.062523
 2751.777701 1834.224776 0.062539
 2770.53332 1826.432897 0.062485
 2788.577418 1818.936646 0.062484
 2805.954433 1811.717527 0.06251
 700.300095 2632.643497 199.493364
 700.300209 2632.643516 163.823869
 700.299901 2632.643601 128.069538
 1800.600105 2197.003545 238.854818
 1800.60006 2197.003572 217.234688
 1829.342167 2185.623741 200.125017
 1953.35191 2136.524766 200.125004
 2000.200069 2117.976245 188.983536
 2000.200051 2117.976248 169.68227
 2000.200084 2117.976273 150.295724
 2000.200077 2117.976272 130.817927
 2000.200132 2117.976206 111.242608
 2000.200104 2117.976221 91.563318
 2000.200117 2117.976193 71.773733
 2000.200058 2117.976227 51.867143
 2000.200058 2117.976245 31.836955
 2000.200043 2117.976252 11.67622
 2027.253783 2107.264891 0.062535
 2087.143399 2083.55291 0.062503
 2142.621094 2061.587723 0.062515
 2194.170867 2041.177714 0.06254
 2242.208869 2022.158086 0.062549
 2287.094186 2004.386712 0.062537
 2329.139303 1987.739857 0.062522
 2368.616167 1972.109843 0.062511
 2405.763325 1957.402235 0.06254
 2440.79086 1943.533841 0.062544
 2473.884255 1930.431235 0.062519
 2505.207814 1918.029338 0.062537
 2534.908366 1906.270048 0.062486
 2563.116745 1895.101539 0.06255
 2589.949614 1884.47767 0.062521
 2615.512715 1874.356495 0.062541
 2639.900566 1864.700663 0.062516
 2663.199007 1855.476142 0.062521
 2685.485579 1846.652252 0.062487
 2706.830747 1838.20108 0.062496
 2727.298736 1830.09724 0.062523
 2746.947557 1822.317689 0.062539
 2765.8311 1814.841179 0.062485
 2783.998329 1807.648264 0.062516
 2801.493796 1800.721292 0.06251
 646.782313 2599.662411 196.154628
 646.782499 2599.662333 160.028002
 646.782488 2599.662345 123.815448
 1800.600238 2165.050653 240.281483
 1800.600223 2165.050639 218.800842
 1818.754286 2158.2125 200.125034
 1943.569239 2111.198094 200.125024
 2000.200212 2089.86674 190.731944
 2000.20022 2089.866754 171.555207
 2000.200177 2089.866766 152.293723
 2000.200188 2089.866798 132.941578
 2000.200132 2089.866821 113.49251
 2000.200186 2089.866816 93.940188
 2000.200233 2089.866766 74.27827
 2000.20016 2089.866796 54.500114
 2000.20016 2089.866797 34.599131
 2000.200061 2089.866845 14.568443
 2017.950954 2083.180538 0.06257
 2078.229441 2060.475277 0.062539
 2134.067186 2039.442728 0.062515
 2185.951733 2019.899255 0.06254
 2234.301651 2001.68715 0.062549
 2279.478369 1984.670295 0.062537
 2321.796671 1968.730177 0.062565
 2361.529823 1953.763783 0.062556
 2398.918084 1939.680625 0.06254
 2434.173042 1926.401049 0.062544
 2467.481285 1913.854726 0.062519
 2499.008257 1901.979387 0.062537
 2528.901777 1890.719302 0.062537
 2557.293225 1880.025039 0.06255
 2584.300274 1869.852217 0.062521
 2610.029379 1860.160752 0.062541
 2634.575553 1850.914863 0.062516
 2658.025369 1842.081982 0.06255
 2680.456654 1833.632726 0.062516
 2701.940447 1825.540386 0.062526
 2722.541231 1817.780603 0.062523
 2742.317716 1810.33135 0.06257
 2761.323886 1803.172244 0.062517
 2779.608977 1796.284751 0.062516
 2797.218137 1789.651852 0.062543
 497.218459 2599.66253 183.831556
 497.218527 2599.662515 146.017593
 1694.491411 2171.448297 250.312495
 1800.599971 2133.497666 241.62898
 1800.599973 2133.497695 220.280075
 1808.626183 2130.627018 200.124999
 1920.318828 2090.679295 197.758769
 1993.652059 2064.45107 191.182921
 2000.199956 2062.109161 173.32418
 2000.199992 2062.10916 154.180831
 2000.200012 2062.109163 134.947373
 2000.199994 2062.109166 115.617605
 2000.199968 2062.109149 96.185174
 2000.200048 2062.109134 76.643858
 2000.199972 2062.109151 56.98699
 2000.200048 2062.109126 37.20808
 2000.199958 2062.109185 17.30022
 2009.0521 2058.943134 0.0625
 2069.702697 2037.250975 0.062503
 2125.885133 2017.156866 0.062515
 2178.089665 1998.485459 0.062501
 2226.737951 1981.086017 0.062509
 2272.193647 1964.828466 0.062537
 2314.772916 1949.59963 0.062522
 2354.751207 1935.301067 0.062511
 2392.370226 1921.846338 0.062495
 2427.842723 1909.159318 0.062496
 2461.356621 1897.172792 0.062519
 2493.07807 1885.827364 0.062487
 2523.156057 1875.069751 0.062486
 2551.72267 1864.852649 0.062497
 2578.896484 1855.133728 0.062521
 2604.784292 1845.874732 0.062513
 2629.481966 1837.041418 0.062488
 2653.076394 1828.602689 0.062492
 2675.64616 1820.530431 0.062487
 2697.262533 1812.799166 0.062496
 2717.990452 1805.385641 0.062492
 2737.888991 1798.268774 0.062539
 2757.012419 1791.429126 0.062485
 2775.410387 1784.848953 0.062484
 2793.128169 1778.512055 0.06251
 1684.159958 2141.779706 250.312509
 1800.600072 2102.321577 242.899441
 1800.599961 2102.321605 221.67474
 1800.600122 2102.321563 200.381203
 1885.900335 2073.415839 193.456346
 1962.043666 2047.613112 186.985978
 2000.200109 2034.682999 174.992051
 2000.200148 2034.683005 155.960073
 2000.200142 2034.683003 136.83852
 2000.200023 2034.683075 117.621174
 2000.200066 2034.683064 98.301821
 2000.200129 2034.683029 78.874189
 2000.200048 2034.683022 59.331674
 2000.200131 2034.682999 39.667848
 2000.200137 2034.683007 19.875841
 2000.561427 2034.560587 0.062535
 2061.566922 2013.887634 0.062539
 2118.077954 1994.737686 0.062515
 2170.588049 1976.943571 0.062501
 2219.521156 1960.361605 0.062549
 2265.24266 1944.86791 0.062537
 2308.070964 1930.354681 0.062479
 2348.283416 1916.727887 0.062511
 2386.122622 1903.905275 0.06254
 2421.802772 1891.814345 0.062544
 2455.512675 1880.391051 0.062519
 2487.41985 1869.578655 0.062537
 2517.673841 1859.326469 0.062537
 2546.407622 1849.589447 0.06255
 2573.740358 1840.327204 0.062521
 2599.779732 1831.503235 0.062541
 2624.621912 1823.084927 0.062516
 2648.354413 1815.042702 0.062521
 2671.056282 1807.349717 0.062516
 2692.799044 1799.981722 0.062496
 2713.648342 1792.916516 0.062523
 2733.663234 1786.134035 0.062539
 2752.898673 1779.615727 0.062517
 2771.404193 1773.344755 0.062484
 2789.225696 1767.305571 0.06251
 1458.76078 2180.987005 250.312506
 1674.326801 2111.942302 250.312509
 1800.600147 2071.497539 244.094953
 1800.599982 2071.497594 222.987124
 1800.60008 2071.497567 201.810841
 1850.629313 2055.473466 188.984537
 1929.720645 2030.140914 182.630708
 2000.200055 2007.56669 176.561485
 2000.200127 2007.566675 157.634329
 2000.200014 2007.566703 138.618048
 2000.199998 2007.566676 119.506553
 2000.200095 2007.566701 100.293584
 2000.200074 2007.566677 80.972925
 2000.200059 2007.566679 61.538034
 2000.200136 2007.566672 41.982482
 2000.199953 2007.566717 22.299429
 2000.200116 2007.56664 2.482038
 2053.823429 1990.391399 0.062503
 2110.647513 1972.190913 0.062515
 2163.448319 1955.27907 0.062501
 2212.652238 1939.519318 0.062509
 2258.62709 1924.793787 0.062537
 2301.692659 1911.000104 0.062522
 2342.127624 1898.048979 0.062511
 2380.176413 1885.862145 0.06254
 2416.054075 1874.370707 0.062544
 2449.950618 1863.513807 0.062519
 2482.034489 1853.237499 0.062537
 2512.455889 1843.493684 0.062486
 2541.348914 1834.2394 0.06255
 2568.832951 1825.436375 0.062521
 2595.016464 1817.049942 0.062513
 2619.996197 1809.04905 0.062488
 2643.860102 1801.40556 0.062492
 2666.687668 1794.094001 0.062487
 2688.550928 1787.091321 0.062496
 2709.515676 1780.376408 0.062523
 2729.64141 1773.930244 0.062539
 2748.983235 1767.735145 0.062485
 2767.591323 1761.775073 0.062484
 2785.511476 1756.035312 0.06251
 1448.30238 2147.367588 250.312506
 1664.994979 2081.944196 250.312509
 1800.600085 2041.00261 245.217392
 1800.600137 2041.002562 224.219316
 1800.600256 2041.00255 203.153128
 1814.462503 2036.817315 184.3347
 1896.649317 2012.003627 178.109532
 1971.308587 1989.462669 172.454531
 2000.200245 1980.739719 159.20627
 2000.200051 1980.739811 140.288839
 2000.200071 1980.739799 121.276706
 2000.200101 1980.739791 102.163616
 2000.200202 1980.739757 82.943409
 2000.200199 1980.73974 63.609571
 2000.200147 1980.739758 44.155675
 2000.200092 1980.73977 24.574971
 2000.200097 1980.739774 4.860554
 2046.474963 1966.768575 0.062539
 2103.595942 1949.522719 0.062515
 2156.672813 1933.497875 0.06254
 2206.133785 1918.56468 0.062549
 2252.348777 1904.611541 0.062537
 2295.63957 1891.541286 0.062565
 2336.285708 1879.269491 0.062511
 2374.533308 1867.72187 0.06254
 2410.59851 1856.83315 0.062544
 2444.672172 1846.545678 0.062519
 2476.9237 1836.808383 0.062537
 2507.504188 1827.575572 0.062537
 2536.548117 1818.806705 0.06255
 2564.175819 1810.465406 0.062521
 2590.496151 1802.51879 0.062541
 2615.606508 1794.937543 0.062516
 2639.595114 1787.694964 0.062521
 2662.541941 1780.766902 0.062516
 2684.519457 1774.1315 0.062526
 2705.593701 1767.768793 0.062523
 2725.824584 1761.660719 0.062539
 2745.267506 1755.790558 0.062485
 2763.972901 1750.14306 0.062516
 2781.986667 1744.704387 0.06251
 1438.409011 2113.577672 250.31253
 1656.166966 2051.794104 250.312509
 1800.600055 2010.814681 246.268529
 1800.600138 2010.814704 225.373225
 1800.600122 2010.814656 204.410121
 1800.600069 2010.814686 183.372909
 1862.79332 1993.168873 173.414351
 1940.278002 1971.184465 167.897472
 2000.200075 1954.183025 160.678328
 2000.200124 1954.182991 141.853523
 2000.200086 1954.183038 122.934414
 2000.200113 1954.183012 103.914874
 2000.200115 1954.183013 84.788715
 2000.200135 1954.182982 65.549511
 2000.200081 1954.183022 46.190799
 2000.200024 1954.183039 26.705921
 2000.200105 1954.183001 7.088001
 2039.523129 1943.026046 0.062539
 2096.925016 1926.739631 0.062515
 2150.262937 1911.606309 0.06254
 2199.967206 1897.503919 0.062549
 2246.409482 1884.327052 0.062537
 2289.913027 1871.983947 0.062522
 2330.759171 1860.394834 0.062511
 2369.194913 1849.489628 0.06254
 2405.437423 1839.206703 0.062544
 2439.678717 1829.491556 0.062519
 2472.088893 1820.295954 0.062537
 2502.819622 1811.576835 0.062486
 2532.006504 1803.295774 0.06255
 2559.770079 1795.418521 0.062521
 2586.219912 1787.914032 0.062541
 2611.453697 1780.754546 0.062516
 2635.56028 1773.914876 0.062521
 2658.619916 1767.372257 0.062487
 2680.705586 1761.105999 0.062526
 2701.883449 1755.097276 0.062523
 2722.213875 1749.329017 0.062539
 2741.752482 1743.785405 0.062517
 2760.549805 1738.452117 0.062516
 2778.652224 1733.316003 0.062543
 1429.082491 2079.626832 250.312506
 1647.845231 2021.500267 250.312495
 1800.60003 1980.912423 247.250016
 1800.600045 1980.91239 226.450661
 1800.599941 1980.912447 205.583805
 1800.600007 1980.912434 184.643204
 1828.113644 1973.601869 168.536425
 1908.562022 1952.226266 163.17077
 1981.758032 1932.777687 158.288808
 2000.199948 1927.877567 143.314453
 2000.199894 1927.877551 124.482242
 2000.200047 1927.877509 105.550061
 2000.200006 1927.877511 86.511716
 2000.200033 1927.877503 67.360862
 2000.200113 1927.877502 48.091066
 2000.200006 1927.877513 28.695663
 2000.200044 1927.877511 9.167836
 2032.969859 1919.170372 0.062503
 2090.636689 1903.847951 0.062515
 2144.220573 1889.610403 0.062501
 2194.154154 1876.34276 0.062509
 2240.810806 1863.945805 0.062537
 2284.514874 1852.333364 0.062479
 2325.549666 1841.430191 0.062511
 2364.162503 1831.170517 0.062495
 2400.572263 1821.496233 0.062496
 2434.97163 1812.356109 0.062519
 2467.531167 1803.70485 0.062487
 2498.403817 1795.501805 0.062486
 2527.725242 1787.710935 0.062497
 2555.616975 1780.299932 0.062521
 2582.188779 1773.239639 0.062513
 2607.539011 1766.50394 0.062488
 2631.756818 1760.069135 0.062492
 2654.922881 1753.913761 0.062487
 2677.110369 1748.018422 0.062496
 2698.385958 1742.365376 0.062492
 2718.81014 1736.938538 0.062507
 2738.4389 1731.723061 0.062485
 2757.322955 1726.705459 0.062484
 2775.508854 1721.873361 0.06251
 1420.326542 2045.524435 250.312506
 1640.0326 1991.07125 250.312509
 1800.600084 1951.275259 248.163309
 1800.600153 1951.275231 227.453253
 1800.600121 1951.275234 206.675989
 1800.600157 1951.275255 185.825278
 1800.600165 1951.275239 164.894654
 1876.128695 1932.555809 158.266326
 1952.030434 1913.74389 153.542606
 2000.200088 1901.805239 144.673961
 2000.200064 1901.80525 125.922575
 2000.20015 1901.805225 107.07166
 2000.20012 1901.805242 88.115048
 2000.20011 1901.805246 69.04639
 2000.200231 1901.805212 49.859334
 2000.200094 1901.805238 30.547181
 2000.200036 1901.805239 11.103166
 2026.8175 1895.208222 0.062503
 2084.732914 1880.854118 0.062515
 2138.547942 1867.5163 0.06254
 2188.696784 1855.087113 0.062549
 2235.554508 1843.47364 0.062537
 2279.447117 1832.595044 0.062522
 2320.658697 1822.380937 0.062511
 2359.438158 1812.769609 0.06254
 2396.004846 1803.7067 0.062544
 2430.552426 1795.14423 0.062519
 2463.252455 1787.039663 0.062537
 2494.258103 1779.355055 0.062486
 2523.706053 1772.056514 0.06255
 2551.717936 1765.11388 0.062521
 2578.404364 1758.499758 0.062541
 2603.86385 1752.189731 0.062516
 2628.186042 1746.161568 0.062521
 2651.452028 1740.395203 0.062516
 2673.735074 1734.872435 0.062496
 2695.102468 1729.576617 0.062523
 2715.614702 1724.492744 0.062539
 2735.32811 1719.606869 0.062517
 2754.293478 1714.906379 0.062484
 2772.557814 1710.37964 0.06251
 1412.14307 2011.280147 250.312506
 1632.730403 1960.515636 250.312495
 1800.599982 1921.883231 249.009832
 1800.59996 1921.883244 228.382514
 1800.600135 1921.883218 207.688299
 1800.599976 1921.88326 186.92089
 1800.600057 1921.883244 166.073916
 1842.943921 1912.138497 153.175527
 1921.679524 1894.018791 148.62383
 1993.424366 1877.50792 144.476299
 2000.199975 1875.948646 127.257582
 2000.200079 1875.948617 108.481986
 2000.200092 1875.948621 89.601144
 2000.200092 1875.948628 70.608673
 2000.200134 1875.948595 51.498302
 2000.199957 1875.94866 32.263289
 2000.200044 1875.948632 12.896994
 2021.067527 1871.146331 0.062539
 2079.2152 1857.764613 0.062515
 2133.245967 1845.330326 0.062501
 2183.596167 1833.743066 0.062549
 2230.641679 1822.916307 0.062496
 2274.710586 1812.774598 0.062522
 2316.087465 1803.252405 0.062511
 2355.022387 1794.292177 0.062495
 2391.735979 1785.843169 0.062544
 2426.42214 1777.860707 0.062519
 2459.253372 1770.305157 0.062537
 2490.383395 1763.141092 0.062486
 2519.949337 1756.336983 0.062497
 2548.073769 1749.864623 0.062521
 2574.867185 1743.698567 0.062513
 2600.428835 1737.815974 0.062488
 2624.848614 1732.196172 0.062492
 2648.20794 1726.820407 0.062487
 2670.580482 1721.671743 0.062496
 2692.033587 1716.734668 0.062523
 2712.628052 1711.995192 0.062507
 2732.420539 1707.440289 0.062485
 2751.462093 1703.058187 0.062484
 2769.799707 1698.838101 0.06251
 1404.534591 1976.903533 250.312506
 1625.941697 1929.841916 250.312509
 1800.600145 1892.71701 249.790849
 1800.600125 1892.717052 229.239876
 1800.600067 1892.717038 208.622241
 1800.600109 1892.717031 187.93174
 1800.600109 1892.717041 167.161918
 1808.971966 1890.93754 147.889184
 1890.67838 1873.570268 143.52459
 1965.010835 1857.770381 139.553878
 2000.200132 1850.290657 128.489275
 2000.200045 1850.290673 109.783158
 2000.200088 1850.290668 90.972202
 2000.200057 1850.290667 72.050045
 2000.200041 1850.290674 53.010377
 2000.19995 1850.290687 33.846603
 2000.200098 1850.290657 14.552008
 2015.721374 1846.991504 0.062539
 2074.085057 1834.585896 0.062515
 2128.316723 1823.058582 0.06254
 2178.853905 1812.316545 0.062549
 2226.074333 1802.27951 0.062537
 2270.306864 1792.877595 0.062522
 2311.837473 1784.04997 0.062511
 2350.917161 1775.743294 0.06254
 2387.766975 1767.910606 0.062544
 2422.582081 1760.510432 0.062519
 2455.535234 1753.505999 0.062537
 2486.780935 1746.864506 0.062486
 2516.456861 1740.556684 0.06255
 2544.685657 1734.556464 0.062521
 2571.578669 1728.840159 0.062541
 2597.235303 1723.386666 0.062516
 2621.745844 1718.176779 0.062521
 2645.191848 1713.193164 0.062487
 2667.64759 1708.420043 0.062526
 2689.180347 1703.843105 0.062523
 2709.851405 1699.449326 0.062539
 2729.717331 1695.226683 0.062485
 2748.829671 1691.164218 0.062516
 2767.235441 1687.251955 0.062543
 1397.50287 1942.403279 250.312506
 1619.667365 1899.057902 250.312509
 1799.055474 1864.058404 250.312507
 1800.599992 1863.757061 230.026605
 1800.600143 1863.757038 209.479279
 1800.600058 1863.757054 188.859299
 1800.600059 1863.757034 168.160303
 1800.599933 1863.757078 147.376043
 1858.995771 1852.363762 138.236123
 1936.03537 1837.332951 134.456764
 2000.200027 1824.814105 129.619507
 2000.2 1824.81412 110.977156
 2000.199975 1824.814126 92.23033
 2000.200125 1824.814093 73.372719
 2000.2 1824.814125 54.397937
 2000.19994 1824.814124 35.299502
 2000.200041 1824.8141 16.070687
 2010.780328 1822.749843 0.062503
 2069.343817 1811.323826 0.062515
 2123.760874 1800.706779 0.062501
 2174.471073 1790.812992 0.062549
 2221.853097 1781.568528 0.062537
 2266.236771 1772.909057 0.062479
 2307.909548 1764.778477 0.062511
 2347.122842 1757.12778 0.062495
 2384.098896 1749.913583 0.062544
 2419.033006 1743.097747 0.062519
 2452.098979 1736.646429 0.062537
 2483.451571 1730.529381 0.062486
 2513.229003 1724.719655 0.06255
 2541.554344 1719.193241 0.062521
 2568.53933 1713.928342 0.062513
 2594.283695 1708.905485 0.062488
 2618.878156 1704.106992 0.062521
 2642.404383 1699.516904 0.062487
 2664.936852 1695.120713 0.062496
 2686.543292 1690.905189 0.062492
 2707.285143 1686.858352 0.062539
 2727.219011 1682.969159 0.062485
 2746.396777 1679.22748 0.062516
 2764.865418 1675.624165 0.06251
 1391.050296 1907.791092 250.312506
 1613.909767 1868.174019 250.312495
 1793.859228 1836.184953 250.312507
 1800.600033 1834.986634 230.743838
 1800.600049 1834.986644 210.260579
 1800.600089 1834.986631 189.704919
 1800.60013 1834.98662 169.070481
 1800.599952 1834.986645 148.351032
 1826.603194 1830.364137 132.74978
 1906.475903 1816.165406 129.17737
 1979.247044 1803.229081 125.922602
 2000.200033 1799.50433 112.065682
 2000.200098 1799.504328 93.377318
 2000.200003 1799.50433 74.578474
 2000.200029 1799.504321 55.662908
 2000.19995 1799.504346 36.62403
 2000.199968 1799.504342 17.45516
 2006.246462 1798.429482 0.062503
 2064.993167 1787.98624 0.062515
 2119.580471 1778.282424 0.062501
 2170.449326 1769.239626 0.062549
 2217.979409 1760.790339 0.062496
 2262.502079 1752.875681 0.062479
 2304.305269 1745.444445 0.062511
 2343.641219 1738.451801 0.062495
 2380.732948 1731.85812 0.062544
 2415.776363 1725.628561 0.062519
 2448.945639 1719.732153 0.062487
 2480.396415 1714.141237 0.062486
 2510.26691 1708.831258 0.062497
 2538.681011 1703.780159 0.062521
 2565.750474 1698.96811 0.062541
 2591.575409 1694.37728 0.062516
 2616.246649 1689.991547 0.062492
 2639.846564 1685.796262 0.062487
 2662.449535 1681.778202 0.062496
 2684.123612 1677.925267 0.062523
 2704.930275 1674.226522 0.062539
 2724.926518 1670.671847 0.062485
 2744.164283 1667.252014 0.062516
 2762.690694 1663.958625 0.06251
 1385.178999 1873.075554 250.31253
 1608.670725 1837.197935 250.312509
 1789.13072 1808.228311 250.312507
 1800.60014 1806.38709 231.392626
 1800.600122 1806.387097 210.967337
 1800.600069 1806.387107 190.469837
 1800.600073 1806.38711 169.893781
 1800.600145 1806.387105 149.232999
 1800.600152 1806.387084 128.480924
 1876.306979 1794.233718 123.707277
 1951.659647 1782.137201 120.661535
 2000.200124 1774.344873 113.050325
 2000.200056 1774.344885 94.414833
 2000.200129 1774.344882 75.669216
 2000.200082 1774.344895 56.807154
 2000.200146 1774.344883 37.822199
 2000.200051 1774.34487 18.707558
 2002.120769 1774.036553 0.062503
 2061.034261 1764.579042 0.062515
 2115.776544 1755.791135 0.06254
 2166.789575 1747.601907 0.062549
 2214.454729 1739.950105 0.062537
 2259.103797 1732.782511 0.062522
 2301.025461 1726.052722 0.062511
 2340.473169 1719.720101 0.06254
 2377.670051 1713.748807 0.062544
 2412.812909 1708.10723 0.062519
 2446.076412 1702.767369 0.062537
 2477.61649 1697.70419 0.062537
 2507.571733 1692.895399 0.06255
 2536.066342 1688.321103 0.062521
 2563.212608 1683.963242 0.062541
 2589.11082 1679.805742 0.062516
 2613.852179 1675.833967 0.062521
 2637.519068 1672.034677 0.062516
 2660.186087 1668.395881 0.062496
 2681.921695 1664.906618 0.062523
 2702.787388 1661.556995 0.062539
 2722.840481 1658.337835 0.062517
 2742.132752 1655.240806 0.062516
 2760.711824 1652.258271 0.062543
 1379.889516 1838.266632 250.312506
 1603.951228 1806.138457 250.312509
 1784.871272 1780.196381 250.312507
 1800.599972 1777.941032 231.973907
 1800.600114 1777.940994 211.600575
 1800.600079 1777.941006 191.155194
 1800.600075 1777.941019 170.63145
 1800.600126 1777.941006 150.023209
 1800.60006 1777.941021 129.323876
 1845.501642 1771.502586 118.03762
 1923.552539 1760.310883 115.217108
 1994.76366 1750.099942 112.643745
 2000.200054 1749.320419 95.344431
 2000.200069 1749.320411 76.64648
 2000.200057 1749.320427 57.832376
 2000.200064 1749.32042 38.895685
 2000.200014 1749.320428 19.829661
 2000.199949 1749.320439 0.627573
 2057.467898 1741.108803 0.062515
 2112.349806 1733.239287 0.06254
 2163.492894 1725.905896 0.062549
 2211.279517 1719.053768 0.062537
 2256.042207 1712.635258 0.062479
 2298.070876 1706.608774 0.062511
 2337.619199 1700.937953 0.06254
 2374.910844 1695.59071 0.062544
 2410.143334 1690.538735 0.062519
 2443.491533 1685.756948 0.062487
 2475.111992 1681.222897 0.062486
 2505.143722 1676.916644 0.06255
 2533.710958 1672.820391 0.062521
 2560.926454 1668.917974 0.062541
 2586.890637 1665.194976 0.062488
 2611.695108 1661.638266 0.062521
 2635.422248 1658.236029 0.062487
 2658.147173 1654.977512 0.062496
 2679.938085 1651.852919 0.062492
 2700.857068 1648.853354 0.062539
 2720.961214 1645.970624 0.062485
 2740.302646 1643.197254 0.062484
 2758.929058 1640.526417 0.06251
 1375.18408 1803.373917 250.312506
 1599.752513 1775.00428 250.312495
 1781.082002 1752.097001 250.312507
 1800.599997 1749.631311 232.488555
 1800.600025 1749.631304 212.161187
 1800.600011 1749.6313 191.761956
 1800.600157 1749.631286 171.284567
 1800.599989 1749.631309 150.722795
 1800.600063 1749.631298 130.070205
 1814.032485 1747.934392 112.159054
 1894.90536 1737.717744 109.581274
 1968.574066 1728.411202 107.233104
 2000.199956 1724.415929 96.167429
 2000.200062 1724.415921 77.511678
 2000.200001 1724.415915 58.740051
 2000.199848 1724.415934 39.846062
 2000.200079 1724.415918 20.823109
 2000.200015 1724.415917 1.664375
 2054.295233 1717.582093 0.062515
 2109.301199 1710.633214 0.062501
 2160.560112 1704.157696 0.062549
 2208.454849 1698.107181 0.062537
 2253.31881 1692.439527 0.062479
 2295.442566 1687.118058 0.062511
 2335.080182 1682.110646 0.062495
 2372.456206 1677.388952 0.062496
 2407.768533 1672.927966 0.062519
 2441.192134 1668.705573 0.062487
 2472.884097 1664.701937 0.062486
 2502.983812 1660.899456 0.06255
 2531.615668 1657.282405 0.062521
 2558.892624 1653.836516 0.062513
 2584.915621 1650.549041 0.062488
 2609.776132 1647.408425 0.062492
 2633.556999 1644.404194 0.062487
 2656.333294 1641.526877 0.062496
 2678.173539 1638.76781 0.062492
 2699.139848 1636.119145 0.062539
 2719.289447 1633.573651 0.062485
 2738.674734 1631.124722 0.062516
 2757.343204 1628.766336 0.06251
 1371.06421 1768.407267 250.312506
 1596.076395 1743.804116 250.312495
 1777.764231 1723.9381 250.312507
 1800.600046 1721.441194 232.937275
 1800.600157 1721.441178 212.650013
 1800.600139 1721.441187 192.291012
 1800.600089 1721.441189 171.853984
 1800.60011 1721.441194 151.332798
 1800.600156 1721.441189 130.720928
 1800.60011 1721.441197 110.012032
 1865.696292 1714.323488 103.745482
 1941.92974 1705.988007 101.639098
 2000.200091 1699.616641 96.885028
 2000.20004 1699.616648 78.26604
 2000.200104 1699.616644 59.531465
 2000.20012 1699.616646 40.674772
 2000.200141 1699.616633 21.6893
 2000.200015 1699.616649 2.568342
 2051.51733 1694.005539 0.062515
 2106.63198 1687.979223 0.062501
 2157.992221 1682.36343 0.062549
 2205.981603 1677.116195 0.062537
 2250.934304 1672.200991 0.062522
 2293.141207 1667.586032 0.062511
 2332.857145 1663.24343 0.062495
 2370.307182 1659.148595 0.062544
 2405.689127 1655.279877 0.062519
 2439.178954 1651.618062 0.062537
 2470.933415 1648.145974 0.062486
 2501.092577 1644.848332 0.06255
 2529.781031 1641.711496 0.062521
 2557.111948 1638.723087 0.062541
 2583.186365 1635.872076 0.062516
 2608.09599 1633.148419 0.062521
 2631.923836 1630.543051 0.062487
 2654.745224 1628.047726 0.062526
 2676.6286 1625.654966 0.062523
 2697.636261 1623.357958 0.062539
 2717.825756 1621.150408 0.062517
 2737.249273 1619.026615 0.062516
 2755.954662 1616.981339 0.06251
 1367.530538 1733.376516 250.312506
 1592.923549 1712.546728 250.312509
 1734.774774 1699.437486 245.31711
 1734.774564 1699.437498 224.328761
 1734.774561 1699.437493 203.272329
 1734.774646 1699.437492 182.141486
 1734.774733 1699.437485 160.929647
 1734.774459 1699.437505 139.630419
 1734.774676 1699.437492 118.237135
 1734.774546 1699.437496 96.743096
 1846.76962 1689.087428 100.124997
 1932.936988 1681.124221 100.125001
 2000.200081 1674.908075 97.498226
 2000.200054 1674.908074 78.9107
 2000.200083 1674.908077 60.207742
 2000.200051 1674.908075 41.382888
 2000.200098 1674.90807 22.429489
 2000.200041 1674.908086 3.340816
 2049.134812 1670.385754 0.062515
 2104.342635 1665.28369 0.062501
 2155.789718 1660.529189 0.062549
 2203.860261 1656.086724 0.062537
 2248.889083 1651.925373 0.062522
 2291.167326 1648.018199 0.062511
 2330.950486 1644.341626 0.062495
 2368.46386 1640.874816 0.062544
 2403.905666 1637.599437 0.062519
 2437.452108 1634.499228 0.062537
 2469.260338 1631.559664 0.062486
 2499.470354 1628.767783 0.062497
 2528.207481 1626.112029 0.062521
 2555.584575 1623.581961 0.062513
 2581.703176 1621.168206 0.062516
 2606.654929 1618.862274 0.062521
 2630.523152 1616.656486 0.062516
 2653.382972 1614.543878 0.062496
 2675.303384 1612.518094 0.062492
 2696.346627 1610.573372 0.062539
 2716.570246 1608.704402 0.062485
 2736.026672 1606.906329 0.062516
 2754.763686 1605.174736 0.06251
 1349.413426 1699.437493 248.794373
 1349.41333 1699.437504 223.297666
 1349.413435 1699.437495 197.732963
 1349.4135 1699.437502 172.092606
 1349.413558 1699.437493 146.369067
 1349.413427 1699.437498 120.554564
 1349.41333 1699.437509 94.641141
 1349.413171 1699.437518 68.620987
 1349.413397 1699.437509 42.485895
 1349.413398 1699.4375 16.227763
 1844.498132 1662.037914 100.124997
 1930.786672 1655.519513 100.124973
 2000.20001 1650.275909 98.00793
 2000.20001 1650.275912 79.44652
 2000.199977 1650.275921 60.769844
 2000.199881 1650.275926 41.971448
 2000.199948 1650.275918 23.044691
 2000.199923 1650.275912 3.982886
 2047.148212 1646.729366 0.062515
 2102.433847 1642.552985 0.062501
 2153.953232 1638.661115 0.062509
 2202.091427 1635.024668 0.062496
 2247.183688 1631.618325 0.062479
 2289.521598 1628.420046 0.062511
 2329.360717 1625.410521 0.062495
 2366.926808 1622.572712 0.062496
 2402.418634 1619.891599 0.062519
 2436.012198 1617.353877 0.062487
 2467.865322 1614.947636 0.062486
 2498.11787 1612.6623 0.062497
 2526.895455 1610.488395 0.062521
 2554.311152 1608.417367 0.062513
 2580.46641 1606.44155 0.062488
 2605.453241 1604.553993 0.062463
 2629.355127 1602.748407 0.062487
 2652.24725 1601.019092 0.062496
 2674.198483 1599.360857 0.062492
 2695.27132 1597.768976 0.062507
 2715.523438 1596.239096 0.062485
 2735.007189 1594.76726 0.062484
 2753.770626 1593.349833 0.062476
 84.50439 1738.176493 0.062523
 361.357499 1721.922343 0.062528
 597.005906 1708.087352 0.062495
 800.066755 1696.165582 0.062533
 976.907423 1685.7832 0.062511
 1132.341713 1676.657605 0.062537
 1270.069727 1668.57154 0.062515
 1842.680289 1634.953389 100.124997
 1929.06605 1629.881648 100.125001
 2000.2001 1625.705345 98.414813
 2000.200115 1625.705345 79.874297
 2000.200077 1625.705346 61.218607
 2000.2001 1625.705348 42.441357
 2000.200106 1625.705343 23.535881
 2000.199994 1625.70535 4.49546
 2045.558416 1623.042344 0.062515
 2100.906333 1619.792846 0.06254
 2152.483687 1616.764727 0.062549
 2200.676086 1613.935329 0.062537
 2245.81908 1611.284976 0.062522
 2288.204475 1608.796509 0.062511
 2328.088606 1606.4549 0.06254
 2365.69693 1604.246903 0.062544
 2401.228581 1602.160828 0.062519
 2434.860095 1600.18631 0.062537
 2466.748892 1598.314105 0.062486
 2497.035636 1596.535962 0.06255
 2525.845448 1594.844527 0.062521
 2553.292042 1593.233128 0.062541
 2579.476763 1591.695816 0.062516
 2604.491717 1590.227179 0.062492
 2628.420433 1588.822316 0.062487
 2651.338284 1587.476803 0.062496
 2673.314331 1586.186583 0.062523
 2694.410871 1584.947997 0.062539
 2714.685699 1583.757653 0.062485
 2734.191387 1582.612466 0.062484
 2752.975988 1581.509618 0.06251
 81.65784 1681.594526 0.062523
 358.74448 1669.981157 0.062528
 594.591492 1660.096232 0.062495
 797.823645 1651.578282 0.062533
 974.813502 1644.160205 0.062511
 1130.378783 1637.640087 0.062537
 1268.223005 1631.862697 0.062515
 1841.316388 1607.842965 100.124997
 1927.775049 1604.21927 100.125001
 2000.200144 1601.183762 98.719493
 2000.200044 1601.183766 80.194554
 2000.200081 1601.183763 61.55461
 2000.20001 1601.183762 42.793186
 2000.200025 1601.183762 23.903619
 2000.199983 1601.183768 4.879265
 2044.365603 1599.332676 0.062515
 2099.760089 1597.01096 0.062501
 2151.381071 1594.847397 0.062549
 2199.614134 1592.825835 0.062537
 2244.795152 1590.932191 0.062522
 2287.216332 1589.154213 0.062511
 2327.134074 1587.481164 0.06254
 2364.7741 1585.903579 0.062544
 2400.335713 1584.413107 0.062519
 2433.99542 1583.002345 0.062487
 2465.911308 1581.664674 0.062486
 2496.22345 1580.394214 0.062497
 2525.05771 1579.185704 0.062521
 2552.527442 1578.034383 0.062541
 2578.734136 1576.935992 0.062488
 2603.770259 1575.886667 0.062492
 2627.719185 1574.882913 0.062487
 2650.656351 1573.92156 0.062496
 2672.650827 1572.999714 0.062492
 2693.765227 1572.11476 0.062539
 2714.057186 1571.264277 0.062485
 2733.579317 1570.446054 0.062484
 2752.37977 1569.658085 0.06251
 79.759733 1624.972826 0.062523
 357.002094 1618.003477 0.062528
 592.981594 1612.071402 0.062495
 796.327862 1606.95966 0.062533
 973.417202 1602.507975 0.062511
 1129.06988 1598.595158 0.062537
 1266.9915 1595.128069 0.062515
 1840.406922 1580.713497 100.124997
 1926.914163 1578.538867 100.125001
 2000.20005 1576.6966 98.922349
 2000.200112 1576.696599 80.407844
 2000.200062 1576.696597 61.778365
 2000.200044 1576.696598 43.027471
 2000.200067 1576.6966 24.148499
 2000.200014 1576.696599 5.134844
 2043.570217 1575.606356 0.062515
 2098.995803 1574.213062 0.062501
 2150.645827 1572.914678 0.062549
 2198.905811 1571.701514 0.062496
 2244.112212 1570.565109 0.062479
 2286.557395 1569.49812 0.062511
 2326.497411 1568.494103 0.062495
 2364.158602 1567.547373 0.062496
 2399.740377 1566.652916 0.062519
 2433.418978 1565.806298 0.062487
 2465.352767 1565.003543 0.062486
 2495.68196 1564.241124 0.062497
 2524.532427 1563.515879 0.062521
 2552.017472 1562.824956 0.062513
 2578.239102 1562.165797 0.062516
 2603.289209 1561.536082 0.062492
 2627.251554 1560.933715 0.062487
 2650.201618 1560.356794 0.062496
 2672.20856 1559.803583 0.062523
 2693.334657 1559.272512 0.062507
 2713.638107 1558.762121 0.062485
 2733.171186 1558.271096 0.062484
 2751.982174 1557.798224 0.06251
 78.81068 1568.327265 0.062523
 356.131142 1566.003903 0.062564
 592.176973 1564.026333 0.062534
 795.57989 1562.322245 0.062533
 972.718977 1560.838191 0.062511
 1128.415428 1559.533781 0.062537
 1266.375748 1558.377964 0.062515
 1839.952309 1553.572597 100.125023
 1926.483791 1552.847644 100.125029
 2000.200097 1552.230057 99.023704
 2000.200034 1552.230058 80.514382
 2000.200149 1552.230056 61.890163
 2000.200054 1552.230057 43.144512
 2000.200109 1552.230056 24.270869
 2000.200142 1552.230057 5.262561
 2043.172524 1551.870038 0.062515
 2098.613819 1551.405556 0.06254
 2150.278205 1550.972718 0.062549
 2198.551862 1550.568286 0.062537
 2243.770991 1550.189445 0.062522
 2286.227888 1549.833745 0.062511
 2326.179322 1549.499036 0.06254
 2363.851057 1549.183426 0.062544
 2399.44264 1548.885243 0.062519
 2433.130834 1548.603007 0.062537
 2465.073639 1548.335393 0.062537
 2495.411357 1548.081227 0.06255
 2524.269723 1547.839454 0.062521
 2551.762599 1547.609122 0.062541
 2577.991498 1547.389379 0.062516
 2603.048738 1547.179452 0.062521
 2627.01782 1546.978642 0.062516
 2649.974305 1546.786314 0.062526
 2671.987373 1546.601891 0.062523
 2693.119478 1546.424848 0.062539
 2713.428516 1546.254701 0.062485
 2732.967197 1546.091008 0.062516
 2751.783452 1545.933367 0.062543
 78.958957 1497.510193 0.062523
 356.267301 1500.995146 0.062564
 592.302662 1503.961424 0.062534
 795.697137 1506.517496 0.062575
 972.828136 1508.743515 0.062511
 1128.517704 1510.700079 0.062537
 1266.472072 1512.433763 0.062515
 1840.023214 1519.641626 100.124997
 1926.551111 1520.729028 100.125029
 2000.20011 1521.654581 99.007881
 2000.200136 1521.654582 80.497767
 2000.200124 1521.654582 61.872691
 2000.200039 1521.65458 43.126212
 2000.20024 1521.654582 24.251772
 2000.200116 1521.65458 5.242594
 2043.234677 1522.1954 0.062515
 2098.673519 1522.892104 0.06254
 2150.335628 1523.541346 0.062549
 2198.607245 1524.147978 0.062537
 2243.824315 1524.716225 0.062522
 2286.279551 1525.249763 0.062556
 2326.229062 1525.751811 0.06254
 2363.899169 1526.225215 0.062544
 2399.489219 1526.672477 0.062519
 2433.175904 1527.095821 0.062537
 2465.117282 1527.49723 0.062537
 2495.453652 1527.878471 0.06255
 2524.310804 1528.241121 0.062521
 2551.802468 1528.58661 0.062541
 2578.030216 1528.916217 0.062516
 2603.086304 1529.231099 0.062521
 2627.054346 1529.532307 0.062516
 2650.009839 1529.82079 0.062526
 2672.021908 1530.097418 0.062523
 2693.153111 1530.362975 0.062539
 2713.461339 1530.61819 0.062517
 2732.999093 1530.863723 0.062516
 2751.814458 1531.100177 0.06251
 80.145375 1440.86911 0.062523
 357.356145 1448.999681 0.062528
 593.309043 1455.920164 0.062534
 796.632062 1461.883613 0.062575
 973.700955 1467.07703 0.062511
 1129.33591 1471.641791 0.062537
 1267.242101 1475.68657 0.062565
 1390.318605 1479.296395 0.062503
 1500.8665 1482.538757 0.062532
 1600.732164 1485.467811 0.062539
 1691.41754 1488.127604 0.062554
 1774.154866 1490.554283 0.062561
 1849.965695 1492.777809 0.062514
 1919.70472 1494.823251 0.06257
 1984.089956 1496.711664 0.062539
 2043.732021 1498.460962 0.062553
 2099.151294 1500.086406 0.06254
 2150.795259 1501.601119 0.062549
 2199.050019 1503.016427 0.062579
 2244.251139 1504.342173 0.062522
 2286.691415 1505.586943 0.062556
 2326.626905 1506.758251 0.06254
 2364.283776 1507.862723 0.062544
 2399.861373 1508.90621 0.062519
 2433.536256 1509.893893 0.062537
 2465.466252 1510.830397 0.062486
 2495.792139 1511.719853 0.06255
 2524.639137 1512.565934 0.062521
 2552.121173 1513.37198 0.062541
 2578.33972 1514.140967 0.062516
 2603.387061 1514.875604 0.062521
 2627.346555 1515.578335 0.062487
 2650.294008 1516.251382 0.062496
 2672.298459 1516.89677 0.062523
 2693.422231 1517.516329 0.062539
 2713.723302 1518.111759 0.062517
 2733.254207 1518.684598 0.062516
 2752.062961 1519.236258 0.06251
 82.280643 1384.255864 0.062523
 359.316236 1397.029768 0.062528
 595.119699 1407.902495 0.062495
 798.314234 1417.271642 0.062533
 975.271547 1425.431014 0.062511
 1130.808143 1432.602687 0.062537
 1268.627004 1438.957416 0.062515
 1391.62608 1444.62881 0.062503
 1502.104032 1449.722866 0.062504
 1601.906558 1454.324686 0.062509
 1692.53465 1458.503484 0.062523
 1775.21976 1462.316028 0.062529
 1850.982807 1465.80941 0.062514
 1920.677599 1469.022983 0.062535
 1985.022146 1471.989862 0.062503
 2044.626559 1474.738177 0.062515
 2100.010796 1477.291908 0.062501
 2151.622148 1479.671668 0.062509
 2199.846468 1481.895253 0.062537
 2245.019144 1483.978133 0.062522
 2287.432521 1485.933782 0.062511
 2327.342765 1487.774014 0.062495
 2364.975969 1489.509255 0.062544
 2400.531058 1491.148672 0.062519
 2434.18455 1492.700412 0.062487
 2466.094571 1494.171756 0.062486
 2496.401102 1495.569172 0.062497
 2525.230049 1496.898449 0.062521
 2552.694629 1498.164824 0.062513
 2578.896596 1499.372974 0.062488
 2603.928116 1500.527161 0.062492
 2627.872657 1501.631222 0.062516
 2650.805541 1502.688643 0.062496
 2672.795982 1503.702607 0.062492
 2693.906477 1504.675996 0.062539
 2714.194701 1505.61147 0.062485
 2733.71331 1506.511459 0.062516
 2752.510188 1507.378168 0.06251
 85.364152 1327.686316 0.062523
 362.146772 1345.099979 0.062528
 597.735353 1359.92193 0.062534
 800.744537 1372.694147 0.062575
 977.539912 1383.81715 0.062511
 1132.934544 1393.593739 0.062537
 1270.627497 1402.25663 0.062515
 1393.514346 1409.987999 0.062503
 1503.891391 1416.932323 0.062504
 1603.603004 1423.205627 0.062539
 1694.148218 1428.902237 0.062523
 1776.757951 1434.099588 0.062561
 1852.451714 1438.861829 0.062514
 1922.082888 1443.242643 0.062535
 1986.368825 1447.287164 0.062539
 2045.918639 1451.033719 0.062515
 2101.252343 1454.515014 0.062501
 2152.816723 1457.759159 0.062549
 2200.996856 1460.790391 0.062537
 2246.128328 1463.629814 0.062522
 2288.502947 1466.295798 0.062511
 2328.376906 1468.80445 0.06254
 2365.975677 1471.169957 0.062544
 2401.498274 1473.404844 0.062519
 2435.121187 1475.520216 0.062537
 2467.001866 1477.525975 0.062486
 2497.280934 1479.430967 0.06255
 2526.083416 1481.243064 0.062521
 2553.523 1482.969411 0.062541
 2579.701064 1484.616393 0.062516
 2604.709687 1486.1898 0.062521
 2628.632324 1487.69488 0.062516
 2651.544327 1489.13638 0.062526
 2673.514688 1490.518636 0.062523
 2694.605848 1491.845577 0.062539
 2714.875638 1493.120838 0.062517
 2734.376351 1494.347718 0.062516
 2753.156087 1495.529236 0.06251
 89.394641 1271.175557 0.06249
 365.847005 1293.224161 0.062528
 601.154243 1311.991204 0.062534
 803.920559 1328.162938 0.062533
 980.505145 1342.246539 0.062511
 1135.714122 1354.625314 0.062537
 1273.242674 1365.593987 0.062515
 1395.982644 1375.383179 0.062503
 1506.228094 1384.175855 0.062532
 1605.820347 1392.118905 0.062539
 1696.257473 1399.331759 0.062523
 1778.768342 1405.912464 0.062529
 1854.371817 1411.94226 0.062514
 1923.919897 1417.489101 0.062535
 1988.128883 1422.610124 0.062503
 2047.607703 1427.353885 0.062515
 2102.875305 1431.761788 0.062501
 2154.377946 1435.869405 0.062509
 2202.500668 1439.707458 0.062537
 2247.578228 1443.302645 0.062522
 2289.902277 1446.67822 0.062511
 2329.72844 1449.854585 0.062495
 2367.282406 1452.849718 0.062544
 2402.762606 1455.679457 0.062519
